ply
format ascii 1.0
element vertex 1181
property float x
property float y
property float z
property uchar red
property uchar green
property uchar blue
end_header
0.357363 -0.104183 -0.041677 254 207 199
0.238595 -0.104183 -0.035452 254 207 199
0.361405 -0.104183 -0.035452 254 207 199
0.235225 -0.104183 -0.028840 254 207 199
0.364775 -0.104183 -0.028840 254 207 199
0.232565 -0.104183 -0.021911 254 207 199
0.367435 -0.104183 -0.021911 254 207 199
0.230645 -0.104183 -0.014742 254 207 199
0.369355 -0.104183 -0.014742 254 207 199
0.229484 -0.104183 -0.007412 254 207 199
0.370517 -0.104183 -0.007412 254 207 199
0.229095 -0.104183 -0.000000 254 207 199
0.370905 -0.104183 0.000000 254 207 199
0.229484 -0.104183 0.007412 254 207 199
0.370517 -0.104183 0.007412 254 207 199
0.230645 -0.104183 0.014742 254 207 199
0.369355 -0.104183 0.014742 254 207 199
0.232565 -0.104183 0.021911 254 207 199
0.367435 -0.104183 0.021911 254 207 199
0.235225 -0.104183 0.028840 254 207 199
0.364775 -0.104183 0.028840 254 207 199
0.238595 -0.104183 0.035452 254 207 199
0.361405 -0.104183 0.035452 254 207 199
0.242637 -0.104183 0.041677 254 207 199
0.357363 -0.104183 0.041677 254 207 199
0.247307 -0.104183 0.047445 254 207 199
0.352693 -0.104183 0.047445 254 207 199
0.252555 -0.104183 0.052693 254 207 199
0.347445 -0.104183 0.052693 254 207 199
0.258323 -0.104183 0.057363 254 207 199
0.341677 -0.104183 0.057363 254 207 199
0.264548 -0.104183 0.061405 254 207 199
0.335452 -0.104183 0.061405 254 207 199
0.271160 -0.104183 0.064775 254 207 199
0.328840 -0.104183 0.064775 254 207 199
0.278089 -0.104183 0.067435 254 207 199
0.321911 -0.104183 0.067435 254 207 199
0.285258 -0.104183 0.069355 254 207 199
0.314742 -0.104183 0.069355 254 207 199
0.292588 -0.104183 0.070517 254 207 199
0.307412 -0.104183 0.070517 254 207 199
0.300000 -0.104183 0.070905 254 207 199
0.300000 -0.103568 -0.071908 254 207 199
0.292484 -0.103568 -0.071514 254 207 199
0.307516 -0.103568 -0.071514 254 207 199
0.285049 -0.103568 -0.070337 254 207 199
0.314951 -0.103568 -0.070337 254 207 199
0.277779 -0.103568 -0.068389 254 207 199
0.322221 -0.103568 -0.068389 254 207 199
0.270752 -0.103568 -0.065692 254 207 199
0.329248 -0.103568 -0.065692 254 207 199
0.264046 -0.103568 -0.062274 254 207 199
0.335954 -0.103568 -0.062274 254 207 199
0.257733 -0.103568 -0.058175 254 207 199
0.342267 -0.103568 -0.058175 254 207 199
0.251884 -0.103568 -0.053438 254 207 199
0.348116 -0.103568 -0.053438 254 207 199
0.246562 -0.103568 -0.048116 254 207 199
0.353438 -0.103568 -0.048116 254 207 199
0.241825 -0.103568 -0.042267 254 207 199
0.358175 -0.103568 -0.042267 254 207 199
0.237726 -0.103568 -0.035954 254 207 199
0.362274 -0.103568 -0.035954 254 207 199
0.234308 -0.103568 -0.029248 254 207 199
0.365692 -0.103568 -0.029248 254 207 199
0.231611 -0.103568 -0.022221 254 207 199
0.368389 -0.103568 -0.022221 254 207 199
0.229663 -0.103568 -0.014951 254 207 199
0.370337 -0.103568 -0.014951 254 207 199
0.228486 -0.103568 -0.007516 254 207 199
0.371514 -0.103568 -0.007516 254 207 199
0.228092 -0.103568 -0.000000 254 207 199
0.371908 -0.103568 0.000000 254 207 199
0.228486 -0.103568 0.007516 254 207 199
0.371514 -0.103568 0.007516 254 207 199
0.229663 -0.103568 0.014951 254 207 199
0.370337 -0.103568 0.014951 254 207 199
0.231611 -0.103568 0.022221 254 207 199
0.368389 -0.103568 0.022221 254 207 199
0.234308 -0.103568 0.029248 254 207 199
0.365692 -0.103568 0.029248 254 207 199
0.237726 -0.103568 0.035954 254 207 199
0.362274 -0.103568 0.035954 254 207 199
0.241825 -0.103568 0.042267 254 207 199
0.358175 -0.103568 0.042267 254 207 199
0.246562 -0.103568 0.048116 254 207 199
0.353438 -0.103568 0.048116 254 207 199
0.251884 -0.103568 0.053438 254 207 199
0.348116 -0.103568 0.053438 254 207 199
0.257733 -0.103568 0.058175 254 207 199
0.342267 -0.103568 0.058175 254 207 199
0.264046 -0.103568 0.062274 254 207 199
0.335954 -0.103568 0.062274 254 207 199
0.270752 -0.103568 0.065692 254 207 199
0.329248 -0.103568 0.065692 254 207 199
0.277779 -0.103568 0.068389 254 207 199
0.322221 -0.103568 0.068389 254 207 199
0.285049 -0.103568 0.070337 254 207 199
0.314951 -0.103568 0.070337 254 207 199
0.292484 -0.103568 0.071514 254 207 199
0.307516 -0.103568 0.071514 254 207 199
0.300000 -0.103568 0.071908 254 207 199
0.300000 -0.102803 -0.072803 254 207 199
0.292390 -0.102803 -0.072404 254 207 199
0.307610 -0.102803 -0.072404 254 207 199
0.284863 -0.102803 -0.071212 254 207 199
0.315137 -0.102803 -0.071212 254 207 199
0.277503 -0.102803 -0.069240 254 207 199
0.322497 -0.102803 -0.069240 254 207 199
0.270388 -0.102803 -0.066509 254 207 199
0.329612 -0.102803 -0.066509 254 207 199
0.263598 -0.102803 -0.063050 254 207 199
0.336402 -0.102803 -0.063050 254 207 199
0.257207 -0.102803 -0.058899 254 207 199
0.342793 -0.102803 -0.058899 254 207 199
0.251285 -0.102803 -0.054103 254 207 199
0.348715 -0.102803 -0.054103 254 207 199
0.245897 -0.102803 -0.048715 254 207 199
0.354103 -0.102803 -0.048715 254 207 199
0.241101 -0.102803 -0.042793 254 207 199
0.358899 -0.102803 -0.042793 254 207 199
0.236950 -0.102803 -0.036402 254 207 199
0.363050 -0.102803 -0.036402 254 207 199
0.233491 -0.102803 -0.029612 254 207 199
0.366509 -0.102803 -0.029612 254 207 199
0.230760 -0.102803 -0.022497 254 207 199
0.369240 -0.102803 -0.022497 254 207 199
0.228788 -0.102803 -0.015137 254 207 199
0.371212 -0.102803 -0.015137 254 207 199
0.227596 -0.102803 -0.007610 254 207 199
0.372404 -0.102803 -0.007610 254 207 199
0.227197 -0.102803 -0.000000 254 207 199
0.372803 -0.102803 0.000000 254 207 199
0.227596 -0.102803 0.007610 254 207 199
0.372404 -0.102803 0.007610 254 207 199
0.228788 -0.102803 0.015137 254 207 199
0.371212 -0.102803 0.015137 254 207 199
0.230760 -0.102803 0.022497 254 207 199
0.369240 -0.102803 0.022497 254 207 199
0.233491 -0.102803 0.029612 254 207 199
0.366509 -0.102803 0.029612 254 207 199
0.236950 -0.102803 0.036402 254 207 199
0.363050 -0.102803 0.036402 254 207 199
0.241101 -0.102803 0.042793 254 207 199
0.358899 -0.102803 0.042793 254 207 199
0.245897 -0.102803 0.048715 254 207 199
0.354103 -0.102803 0.048715 254 207 199
0.251285 -0.102803 0.054103 254 207 199
0.348715 -0.102803 0.054103 254 207 199
0.257207 -0.102803 0.058899 254 207 199
0.342793 -0.102803 0.058899 254 207 199
0.263598 -0.102803 0.063050 254 207 199
0.336402 -0.102803 0.063050 254 207 199
0.270388 -0.102803 0.066509 254 207 199
0.329612 -0.102803 0.066509 254 207 199
0.277503 -0.102803 0.069240 254 207 199
0.322497 -0.102803 0.069240 254 207 199
0.284863 -0.102803 0.071212 254 207 199
0.315137 -0.102803 0.071212 254 207 199
0.292390 -0.102803 0.072404 254 207 199
0.307610 -0.102803 0.072404 254 207 199
0.300000 -0.102803 0.072803 254 207 199
0.300000 -0.101908 -0.073568 254 207 199
0.292310 -0.101908 -0.073165 254 207 199
0.307690 -0.101908 -0.073165 254 207 199
0.284704 -0.101908 -0.071960 254 207 199
0.315296 -0.101908 -0.071960 254 207 199
0.277266 -0.101908 -0.069967 254 207 199
0.322734 -0.101908 -0.069967 254 207 199
0.270077 -0.101908 -0.067207 254 207 199
0.329923 -0.101908 -0.067207 254 207 199
0.263216 -0.101908 -0.063711 254 207 199
0.336784 -0.101908 -0.063711 254 207 199
0.256758 -0.101908 -0.059517 254 207 199
0.343242 -0.101908 -0.059517 254 207 199
0.250774 -0.101908 -0.054671 254 207 199
0.349226 -0.101908 -0.054671 254 207 199
0.245329 -0.101908 -0.049226 254 207 199
0.354671 -0.101908 -0.049226 254 207 199
0.240483 -0.101908 -0.043242 254 207 199
0.359517 -0.101908 -0.043242 254 207 199
0.236289 -0.101908 -0.036784 254 207 199
0.363711 -0.101908 -0.036784 254 207 199
0.232793 -0.101908 -0.029923 254 207 199
0.367207 -0.101908 -0.029923 254 207 199
0.230033 -0.101908 -0.022734 254 207 199
0.369967 -0.101908 -0.022734 254 207 199
0.228040 -0.101908 -0.015296 254 207 199
0.371960 -0.101908 -0.015296 254 207 199
0.226835 -0.101908 -0.007690 254 207 199
0.373165 -0.101908 -0.007690 254 207 199
0.226432 -0.101908 -0.000000 254 207 199
0.373568 -0.101908 0.000000 254 207 199
0.226835 -0.101908 0.007690 254 207 199
0.373165 -0.101908 0.007690 254 207 199
0.228040 -0.101908 0.015296 254 207 199
0.371960 -0.101908 0.015296 254 207 199
0.230033 -0.101908 0.022734 254 207 199
0.369967 -0.101908 0.022734 254 207 199
0.232793 -0.101908 0.029923 254 207 199
0.367207 -0.101908 0.029923 254 207 199
0.236289 -0.101908 0.036784 254 207 199
0.363711 -0.101908 0.036784 254 207 199
0.240483 -0.101908 0.043242 254 207 199
0.359517 -0.101908 0.043242 254 207 199
0.245329 -0.101908 0.049226 254 207 199
0.354671 -0.101908 0.049226 254 207 199
0.250774 -0.101908 0.054671 254 207 199
0.349226 -0.101908 0.054671 254 207 199
0.256758 -0.101908 0.059517 254 207 199
0.343242 -0.101908 0.059517 254 207 199
0.263216 -0.101908 0.063711 254 207 199
0.336784 -0.101908 0.063711 254 207 199
0.270077 -0.101908 0.067207 254 207 199
0.329923 -0.101908 0.067207 254 207 199
0.277266 -0.101908 0.069967 254 207 199
0.322734 -0.101908 0.069967 254 207 199
0.284704 -0.101908 0.071960 254 207 199
0.315296 -0.101908 0.071960 254 207 199
0.292310 -0.101908 0.073165 254 207 199
0.307690 -0.101908 0.073165 254 207 199
0.300000 -0.101908 0.073568 254 207 199
0.300000 -0.100905 -0.074183 254 207 199
0.292246 -0.100905 -0.073776 254 207 199
0.307754 -0.100905 -0.073776 254 207 199
0.284577 -0.100905 -0.072561 254 207 199
0.315423 -0.100905 -0.072561 254 207 199
0.277076 -0.100905 -0.070552 254 207 199
0.322924 -0.100905 -0.070552 254 207 199
0.269827 -0.100905 -0.067769 254 207 199
0.330173 -0.100905 -0.067769 254 207 199
0.262909 -0.100905 -0.064244 254 207 199
0.337091 -0.100905 -0.064244 254 207 199
0.256397 -0.100905 -0.060015 254 207 199
0.343603 -0.100905 -0.060015 254 207 199
0.250362 -0.100905 -0.055128 254 207 199
0.349638 -0.100905 -0.055128 254 207 199
0.244872 -0.100905 -0.049638 254 207 199
0.355128 -0.100905 -0.049638 254 207 199
0.239985 -0.100905 -0.043603 254 207 199
0.360015 -0.100905 -0.043603 254 207 199
0.235756 -0.100905 -0.037091 254 207 199
0.364244 -0.100905 -0.037091 254 207 199
0.232231 -0.100905 -0.030173 254 207 199
0.367769 -0.100905 -0.030173 254 207 199
0.229448 -0.100905 -0.022924 254 207 199
0.370552 -0.100905 -0.022924 254 207 199
0.227439 -0.100905 -0.015423 254 207 199
0.372561 -0.100905 -0.015423 254 207 199
0.226224 -0.100905 -0.007754 254 207 199
0.373776 -0.100905 -0.007754 254 207 199
0.225817 -0.100905 -0.000000 254 207 199
0.374183 -0.100905 0.000000 254 207 199
0.226224 -0.100905 0.007754 254 207 199
0.373776 -0.100905 0.007754 254 207 199
0.227439 -0.100905 0.015423 254 207 199
0.372561 -0.100905 0.015423 254 207 199
0.229448 -0.100905 0.022924 254 207 199
0.370552 -0.100905 0.022924 254 207 199
0.232231 -0.100905 0.030173 254 207 199
0.367769 -0.100905 0.030173 254 207 199
0.235756 -0.100905 0.037091 254 207 199
0.364244 -0.100905 0.037091 254 207 199
0.239985 -0.100905 0.043603 254 207 199
0.360015 -0.100905 0.043603 254 207 199
0.244872 -0.100905 0.049638 254 207 199
0.355128 -0.100905 0.049638 254 207 199
0.250362 -0.100905 0.055128 254 207 199
0.349638 -0.100905 0.055128 254 207 199
0.256397 -0.100905 0.060015 254 207 199
0.343603 -0.100905 0.060015 254 207 199
0.262909 -0.100905 0.064244 254 207 199
0.337091 -0.100905 0.064244 254 207 199
0.269827 -0.100905 0.067769 254 207 199
0.330173 -0.100905 0.067769 254 207 199
0.277076 -0.100905 0.070552 254 207 199
0.322924 -0.100905 0.070552 254 207 199
0.284577 -0.100905 0.072561 254 207 199
0.315423 -0.100905 0.072561 254 207 199
0.292246 -0.100905 0.073776 254 207 199
0.307754 -0.100905 0.073776 254 207 199
0.300000 -0.100905 0.074183 254 207 199
0.300000 -0.099818 -0.074633 254 207 199
0.292199 -0.099818 -0.074224 254 207 199
0.307801 -0.099818 -0.074224 254 207 199
0.284483 -0.099818 -0.073002 254 207 199
0.315517 -0.099818 -0.073002 254 207 199
0.276937 -0.099818 -0.070980 254 207 199
0.323063 -0.099818 -0.070980 254 207 199
0.269644 -0.099818 -0.068181 254 207 199
0.330356 -0.099818 -0.068181 254 207 199
0.262684 -0.099818 -0.064634 254 207 199
0.337316 -0.099818 -0.064634 254 207 199
0.256132 -0.099818 -0.060379 254 207 199
0.343868 -0.099818 -0.060379 254 207 199
0.250061 -0.099818 -0.055463 254 207 199
0.349939 -0.099818 -0.055463 254 207 199
0.244537 -0.099818 -0.049939 254 207 199
0.355463 -0.099818 -0.049939 254 207 199
0.239621 -0.099818 -0.043868 254 207 199
0.360379 -0.099818 -0.043868 254 207 199
0.235366 -0.099818 -0.037316 254 207 199
0.364634 -0.099818 -0.037316 254 207 199
0.231819 -0.099818 -0.030356 254 207 199
0.368181 -0.099818 -0.030356 254 207 199
0.229020 -0.099818 -0.023063 254 207 199
0.370980 -0.099818 -0.023063 254 207 199
0.226998 -0.099818 -0.015517 254 207 199
0.373002 -0.099818 -0.015517 254 207 199
0.225776 -0.099818 -0.007801 254 207 199
0.374224 -0.099818 -0.007801 254 207 199
0.225367 -0.099818 -0.000000 254 207 199
0.374633 -0.099818 0.000000 254 207 199
0.225776 -0.099818 0.007801 254 207 199
0.374224 -0.099818 0.007801 254 207 199
0.226998 -0.099818 0.015517 254 207 199
0.373002 -0.099818 0.015517 254 207 199
0.229020 -0.099818 0.023063 254 207 199
0.370980 -0.099818 0.023063 254 207 199
0.231819 -0.099818 0.030356 254 207 199
0.368181 -0.099818 0.030356 254 207 199
0.235366 -0.099818 0.037316 254 207 199
0.364634 -0.099818 0.037316 254 207 199
0.239621 -0.099818 0.043868 254 207 199
0.360379 -0.099818 0.043868 254 207 199
0.244537 -0.099818 0.049939 254 207 199
0.355463 -0.099818 0.049939 254 207 199
0.250061 -0.099818 0.055463 254 207 199
0.349939 -0.099818 0.055463 254 207 199
0.256132 -0.099818 0.060379 254 207 199
0.343868 -0.099818 0.060379 254 207 199
0.262684 -0.099818 0.064634 254 207 199
0.337316 -0.099818 0.064634 254 207 199
0.269644 -0.099818 0.068181 254 207 199
0.330356 -0.099818 0.068181 254 207 199
0.276937 -0.099818 0.070980 254 207 199
0.323063 -0.099818 0.070980 254 207 199
0.284483 -0.099818 0.073002 254 207 199
0.315517 -0.099818 0.073002 254 207 199
0.292199 -0.099818 0.074224 254 207 199
0.307801 -0.099818 0.074224 254 207 199
0.300000 -0.099818 0.074633 254 207 199
0.300000 -0.098673 -0.074908 254 207 199
0.292170 -0.098673 -0.074497 254 207 199
0.307830 -0.098673 -0.074497 254 207 199
0.284426 -0.098673 -0.073271 254 207 199
0.315574 -0.098673 -0.073271 254 207 199
0.276852 -0.098673 -0.071241 254 207 199
0.323148 -0.098673 -0.071241 254 207 199
0.269532 -0.098673 -0.068432 254 207 199
0.330468 -0.098673 -0.068432 254 207 199
0.262546 -0.098673 -0.064872 254 207 199
0.337454 -0.098673 -0.064872 254 207 199
0.255970 -0.098673 -0.060602 254 207 199
0.344030 -0.098673 -0.060602 254 207 199
0.249877 -0.098673 -0.055667 254 207 199
0.350123 -0.098673 -0.055667 254 207 199
0.244333 -0.098673 -0.050123 254 207 199
0.355667 -0.098673 -0.050123 254 207 199
0.239398 -0.098673 -0.044030 254 207 199
0.360602 -0.098673 -0.044030 254 207 199
0.235128 -0.098673 -0.037454 254 207 199
0.364872 -0.098673 -0.037454 254 207 199
0.231568 -0.098673 -0.030468 254 207 199
0.368432 -0.098673 -0.030468 254 207 199
0.228759 -0.098673 -0.023148 254 207 199
0.371241 -0.098673 -0.023148 254 207 199
0.226729 -0.098673 -0.015574 254 207 199
0.373271 -0.098673 -0.015574 254 207 199
0.225503 -0.098673 -0.007830 254 207 199
0.374497 -0.098673 -0.007830 254 207 199
0.225092 -0.098673 -0.000000 254 207 199
0.374908 -0.098673 0.000000 254 207 199
0.225503 -0.098673 0.007830 254 207 199
0.374497 -0.098673 0.007830 254 207 199
0.226729 -0.098673 0.015574 254 207 199
0.373271 -0.098673 0.015574 254 207 199
0.228759 -0.098673 0.023148 254 207 199
0.371241 -0.098673 0.023148 254 207 199
0.231568 -0.098673 0.030468 254 207 199
0.368432 -0.098673 0.030468 254 207 199
0.235128 -0.098673 0.037454 254 207 199
0.364872 -0.098673 0.037454 254 207 199
0.239398 -0.098673 0.044030 254 207 199
0.360602 -0.098673 0.044030 254 207 199
0.244333 -0.098673 0.050123 254 207 199
0.355667 -0.098673 0.050123 254 207 199
0.249877 -0.098673 0.055667 254 207 199
0.350123 -0.098673 0.055667 254 207 199
0.255970 -0.098673 0.060602 254 207 199
0.344030 -0.098673 0.060602 254 207 199
0.262546 -0.098673 0.064872 254 207 199
0.337454 -0.098673 0.064872 254 207 199
0.269532 -0.098673 0.068432 254 207 199
0.330468 -0.098673 0.068432 254 207 199
0.276852 -0.098673 0.071241 254 207 199
0.323148 -0.098673 0.071241 254 207 199
0.284426 -0.098673 0.073271 254 207 199
0.315574 -0.098673 0.073271 254 207 199
0.292170 -0.098673 0.074497 254 207 199
0.307830 -0.098673 0.074497 254 207 199
0.300000 -0.098673 0.074908 254 207 199
0.300000 -0.097500 -0.075000 254 207 199
0.294395 -0.097500 -0.074790 254 207 199
0.305605 -0.097500 -0.074790 254 207 199
0.292160 -0.097500 -0.074589 254 207 199
0.307840 -0.097500 -0.074589 254 207 199
0.284407 -0.097500 -0.073361 254 207 199
0.315593 -0.097500 -0.073361 254 207 199
0.283311 -0.097500 -0.073120 254 207 199
0.316689 -0.097500 -0.073120 254 207 199
0.276824 -0.097500 -0.071329 254 207 199
0.323176 -0.097500 -0.071329 254 207 199
0.272599 -0.097500 -0.069816 254 207 199
0.327401 -0.097500 -0.069816 254 207 199
0.269495 -0.097500 -0.068516 254 207 199
0.330505 -0.097500 -0.068516 254 207 199
0.262500 -0.097500 -0.064952 254 207 199
0.337500 -0.097500 -0.064952 254 207 199
0.255916 -0.097500 -0.060676 254 207 199
0.344084 -0.097500 -0.060676 254 207 199
0.253238 -0.097500 -0.058637 254 207 199
0.346762 -0.097500 -0.058637 254 207 199
0.249815 -0.097500 -0.055736 254 207 199
0.350185 -0.097500 -0.055736 254 207 199
0.245021 -0.097500 -0.051013 254 207 199
0.354979 -0.097500 -0.051013 254 207 199
0.244264 -0.097500 -0.050185 254 207 199
0.355736 -0.097500 -0.050185 254 207 199
0.239324 -0.097500 -0.044084 254 207 199
0.360676 -0.097500 -0.044084 254 207 199
0.238032 -0.097500 -0.042249 254 207 199
0.361968 -0.097500 -0.042249 254 207 199
0.235048 -0.097500 -0.037500 254 207 199
0.364952 -0.097500 -0.037500 254 207 199
0.232427 -0.097500 -0.032541 254 207 199
0.367573 -0.097500 -0.032541 254 207 199
0.231484 -0.097500 -0.030505 254 207 199
0.368516 -0.097500 -0.030505 254 207 199
0.228671 -0.097500 -0.023176 254 207 199
0.371329 -0.097500 -0.023176 254 207 199
0.228332 -0.097500 -0.022107 254 207 199
0.371668 -0.097500 -0.022107 254 207 199
0.226639 -0.097500 -0.015593 254 207 199
0.373361 -0.097500 -0.015593 254 207 199
0.225838 -0.097500 -0.011178 254 207 199
0.374162 -0.097500 -0.011178 254 207 199
0.225411 -0.097500 -0.007840 254 207 199
0.374589 -0.097500 -0.007840 254 207 199
0.225000 -0.097500 -0.000000 254 207 199
0.375000 -0.097500 0.000000 254 254 254
0.225000 -0.097500 0.000000 254 254 254
0.375000 -0.097500 0.000000 254 207 199
0.225411 -0.097500 0.007840 254 207 199
0.374589 -0.097500 0.007840 254 207 199
0.225838 -0.097500 0.011178 254 207 199
0.374162 -0.097500 0.011178 254 207 199
0.226639 -0.097500 0.015593 254 207 199
0.373361 -0.097500 0.015593 254 207 199
0.228332 -0.097500 0.022107 254 207 199
0.371668 -0.097500 0.022107 254 207 199
0.228671 -0.097500 0.023176 254 207 199
0.371329 -0.097500 0.023176 254 207 199
0.231484 -0.097500 0.030505 254 207 199
0.368516 -0.097500 0.030505 254 207 199
0.232427 -0.097500 0.032541 254 207 199
0.367573 -0.097500 0.032541 254 207 199
0.235048 -0.097500 0.037500 254 207 199
0.364952 -0.097500 0.037500 254 207 199
0.238032 -0.097500 0.042249 254 207 199
0.361968 -0.097500 0.042249 254 207 199
0.239324 -0.097500 0.044084 254 207 199
0.360676 -0.097500 0.044084 254 207 199
0.244264 -0.097500 0.050185 254 207 199
0.355736 -0.097500 0.050185 254 207 199
0.245021 -0.097500 0.051013 254 207 199
0.354979 -0.097500 0.051013 254 207 199
0.249815 -0.097500 0.055736 254 207 199
0.350185 -0.097500 0.055736 254 207 199
0.253238 -0.097500 0.058637 254 207 199
0.346762 -0.097500 0.058637 254 207 199
0.255916 -0.097500 0.060676 254 207 199
0.344084 -0.097500 0.060676 254 207 199
0.262500 -0.097500 0.064952 254 207 199
0.337500 -0.097500 0.064952 254 207 199
0.269495 -0.097500 0.068516 254 207 199
0.330505 -0.097500 0.068516 254 207 199
0.272599 -0.097500 0.069816 254 207 199
0.327401 -0.097500 0.069816 254 207 199
0.276824 -0.097500 0.071329 254 207 199
0.323176 -0.097500 0.071329 254 207 199
0.283311 -0.097500 0.073120 254 207 199
0.316689 -0.097500 0.073120 254 207 199
0.284407 -0.097500 0.073361 254 207 199
0.315593 -0.097500 0.073361 254 207 199
0.292160 -0.097500 0.074589 254 207 199
0.307840 -0.097500 0.074589 254 207 199
0.294395 -0.097500 0.074790 254 207 199
0.305605 -0.097500 0.074790 254 207 199
0.300000 -0.097500 0.075000 254 207 199
0.300000 -0.090000 -0.075000 254 207 199
0.294395 -0.090000 -0.074790 254 207 199
0.305605 -0.090000 -0.074790 254 207 199
0.292160 -0.090000 -0.074589 254 207 199
0.307840 -0.090000 -0.074589 254 207 199
0.284407 -0.090000 -0.073361 254 207 199
0.315593 -0.090000 -0.073361 254 207 199
0.283311 -0.090000 -0.073120 254 207 199
0.316689 -0.090000 -0.073120 254 207 199
0.276824 -0.090000 -0.071329 254 207 199
0.323176 -0.090000 -0.071329 254 207 199
0.272599 -0.090000 -0.069816 254 207 199
0.327401 -0.090000 -0.069816 254 207 199
0.269495 -0.090000 -0.068516 254 207 199
0.330505 -0.090000 -0.068516 254 207 199
0.262500 -0.090000 -0.064952 254 207 199
0.337500 -0.090000 -0.064952 254 207 199
0.255916 -0.090000 -0.060676 254 207 199
0.344084 -0.090000 -0.060676 254 207 199
0.253238 -0.090000 -0.058637 254 207 199
0.346762 -0.090000 -0.058637 254 207 199
0.249815 -0.090000 -0.055736 254 207 199
0.350185 -0.090000 -0.055736 254 207 199
0.245021 -0.090000 -0.051013 254 207 199
0.354979 -0.090000 -0.051013 254 207 199
0.244264 -0.090000 -0.050185 254 207 199
0.355736 -0.090000 -0.050185 254 207 199
0.239324 -0.090000 -0.044084 254 207 199
0.360676 -0.090000 -0.044084 254 207 199
0.238032 -0.090000 -0.042249 254 207 199
0.361968 -0.090000 -0.042249 254 207 199
0.235048 -0.090000 -0.037500 254 207 199
0.364952 -0.090000 -0.037500 254 207 199
0.232427 -0.090000 -0.032541 254 207 199
0.367573 -0.090000 -0.032541 254 207 199
0.231484 -0.090000 -0.030505 254 207 199
0.368516 -0.090000 -0.030505 254 207 199
0.228671 -0.090000 -0.023176 254 207 199
0.371329 -0.090000 -0.023176 254 207 199
0.228332 -0.090000 -0.022107 254 207 199
0.371668 -0.090000 -0.022107 254 207 199
0.226639 -0.090000 -0.015593 254 207 199
0.373361 -0.090000 -0.015593 254 207 199
0.225838 -0.090000 -0.011178 254 207 199
0.374162 -0.090000 -0.011178 254 207 199
0.225411 -0.090000 -0.007840 254 207 199
0.374589 -0.090000 -0.007840 254 207 199
0.375000 -0.090000 0.000000 254 254 254
0.225000 -0.090000 0.000000 254 207 199
0.375000 -0.090000 0.000000 254 207 199
0.225411 -0.090000 0.007840 254 207 199
0.374589 -0.090000 0.007840 254 207 199
0.225838 -0.090000 0.011178 254 207 199
0.374162 -0.090000 0.011178 254 207 199
0.226639 -0.090000 0.015593 254 207 199
0.373361 -0.090000 0.015593 254 207 199
0.228332 -0.090000 0.022107 254 207 199
0.371668 -0.090000 0.022107 254 207 199
0.228671 -0.090000 0.023176 254 207 199
0.371329 -0.090000 0.023176 254 207 199
0.231484 -0.090000 0.030505 254 207 199
0.368516 -0.090000 0.030505 254 207 199
0.232427 -0.090000 0.032541 254 207 199
0.367573 -0.090000 0.032541 254 207 199
0.235048 -0.090000 0.037500 254 207 199
0.364952 -0.090000 0.037500 254 207 199
0.238032 -0.090000 0.042249 254 207 199
0.361968 -0.090000 0.042249 254 207 199
0.239324 -0.090000 0.044084 254 207 199
0.360676 -0.090000 0.044084 254 207 199
0.244264 -0.090000 0.050185 254 207 199
0.355736 -0.090000 0.050185 254 207 199
0.245021 -0.090000 0.051013 254 207 199
0.354979 -0.090000 0.051013 254 207 199
0.249815 -0.090000 0.055736 254 207 199
0.350185 -0.090000 0.055736 254 207 199
0.253238 -0.090000 0.058637 254 207 199
0.346762 -0.090000 0.058637 254 207 199
0.255916 -0.090000 0.060676 254 207 199
0.344084 -0.090000 0.060676 254 207 199
0.262500 -0.090000 0.064952 254 207 199
0.337500 -0.090000 0.064952 254 207 199
0.269495 -0.090000 0.068516 254 207 199
0.330505 -0.090000 0.068516 254 207 199
0.272599 -0.090000 0.069816 254 207 199
0.327401 -0.090000 0.069816 254 207 199
0.276824 -0.090000 0.071329 254 207 199
0.323176 -0.090000 0.071329 254 207 199
0.283311 -0.090000 0.073120 254 207 199
0.316689 -0.090000 0.073120 254 207 199
0.284407 -0.090000 0.073361 254 207 199
0.315593 -0.090000 0.073361 254 207 199
0.292160 -0.090000 0.074589 254 207 199
0.307840 -0.090000 0.074589 254 207 199
0.294395 -0.090000 0.074790 254 207 199
0.305605 -0.090000 0.074790 254 207 199
0.300000 -0.090000 0.075000 254 207 199
0.224962 -0.088930 0.000000 254 207 199
0.225372 -0.088901 -0.007840 254 207 199
0.225372 -0.088901 0.007840 254 207 199
0.226597 -0.088813 -0.015593 254 207 199
0.226597 -0.088813 0.015593 254 207 199
0.228623 -0.088668 -0.023176 254 207 199
0.228623 -0.088668 0.023176 254 207 199
0.231429 -0.088467 -0.030505 254 207 199
0.231429 -0.088467 0.030505 254 207 199
0.234984 -0.088213 -0.037500 254 207 199
0.234984 -0.088213 0.037500 254 207 199
0.239249 -0.087908 -0.044084 254 207 199
0.239249 -0.087908 0.044084 254 207 199
0.224847 -0.087865 0.000000 254 207 199
0.225254 -0.087807 -0.007840 254 207 199
0.225254 -0.087807 0.007840 254 207 199
0.226470 -0.087632 -0.015593 254 207 199
0.226470 -0.087632 0.015593 254 207 199
0.244177 -0.087556 -0.050185 254 207 199
0.244177 -0.087556 0.050185 254 207 199
0.228481 -0.087343 -0.023176 254 207 199
0.228481 -0.087343 0.023176 254 207 199
0.249714 -0.087160 -0.055736 254 207 199
0.249714 -0.087160 0.055736 254 207 199
0.231265 -0.086943 -0.030505 254 207 199
0.231265 -0.086943 0.030505 254 207 199
0.224657 -0.086812 0.000000 254 207 199
0.255799 -0.086724 -0.060676 254 207 199
0.255799 -0.086724 0.060676 254 207 199
0.225059 -0.086724 -0.007840 254 207 199
0.225059 -0.086724 0.007840 254 207 199
0.226259 -0.086463 -0.015593 254 207 199
0.226259 -0.086463 0.015593 254 207 199
0.234793 -0.086435 -0.037500 254 207 199
0.234793 -0.086435 0.037500 254 207 199
0.262366 -0.086255 -0.064952 254 207 199
0.262366 -0.086255 0.064952 254 207 199
0.228244 -0.086031 -0.023176 254 207 199
0.228244 -0.086031 0.023176 254 207 199
0.239025 -0.085827 -0.044084 254 207 199
0.239025 -0.085827 0.044084 254 207 199
0.224392 -0.085774 0.000000 254 207 199
0.269343 -0.085756 -0.068516 254 207 199
0.269343 -0.085756 0.068516 254 207 199
0.224787 -0.085658 -0.007840 254 207 199
0.224787 -0.085658 0.007840 254 207 199
0.230993 -0.085433 -0.030505 254 207 199
0.230993 -0.085433 0.030505 254 207 199
0.225965 -0.085312 -0.015593 254 207 199
0.225965 -0.085312 0.015593 254 207 199
0.276653 -0.085233 -0.071329 254 207 199
0.276653 -0.085233 0.071329 254 207 199
0.243915 -0.085124 -0.050185 254 207 199
0.243915 -0.085124 0.050185 254 207 199
0.224054 -0.084758 0.000000 254 207 199
0.227914 -0.084740 -0.023176 254 207 199
0.227914 -0.084740 0.023176 254 207 199
0.284217 -0.084692 -0.073361 254 207 199
0.284217 -0.084692 0.073361 254 207 199
0.234476 -0.084676 -0.037500 254 207 199
0.234476 -0.084676 0.037500 254 207 199
0.224439 -0.084614 -0.007840 254 207 199
0.224439 -0.084614 0.007840 254 207 199
0.249410 -0.084334 -0.055736 254 207 199
0.249410 -0.084334 0.055736 254 207 199
0.225590 -0.084185 -0.015593 254 207 199
0.225590 -0.084185 0.015593 254 207 199
0.291951 -0.084139 -0.074589 254 207 199
0.291951 -0.084139 0.074589 254 207 199
0.230614 -0.083947 -0.030505 254 207 199
0.230614 -0.083947 0.030505 254 207 199
0.223644 -0.083769 0.000000 254 207 199
0.238654 -0.083767 -0.044084 254 207 199
0.238654 -0.083767 0.044084 254 207 199
0.224018 -0.083598 -0.007840 254 207 199
0.224018 -0.083598 0.007840 254 207 199
0.299771 -0.083579 -0.075000 254 207 199
0.299771 -0.083579 0.075000 254 207 199
0.227494 -0.083475 -0.023176 254 207 199
0.227494 -0.083475 0.023176 254 207 199
0.255449 -0.083465 -0.060676 254 207 199
0.255449 -0.083465 0.060676 254 207 199
0.225135 -0.083088 -0.015593 254 207 199
0.225135 -0.083088 0.015593 254 207 199
0.307590 -0.083020 -0.074589 254 207 199
0.307590 -0.083020 0.074589 254 207 199
0.234033 -0.082943 -0.037500 254 207 199
0.234033 -0.082943 0.037500 254 207 199
0.223165 -0.082811 0.000000 254 207 199
0.243481 -0.082717 -0.050185 254 207 199
0.243481 -0.082717 0.050185 254 207 199
0.223526 -0.082614 -0.007840 254 207 199
0.223526 -0.082614 0.007840 254 207 199
0.261966 -0.082528 -0.064952 254 207 199
0.261966 -0.082528 0.064952 254 207 199
0.230130 -0.082492 -0.030505 254 207 199
0.230130 -0.082492 0.030505 254 207 199
0.315324 -0.082467 -0.073361 254 207 199
0.315324 -0.082467 0.073361 254 207 199
0.226984 -0.082244 -0.023176 254 207 199
0.226984 -0.082244 0.023176 254 207 199
0.224604 -0.082026 -0.015593 254 207 199
0.224604 -0.082026 0.015593 254 207 199
0.322888 -0.081926 -0.071329 254 207 199
0.322888 -0.081926 0.071329 254 207 199
0.222619 -0.081890 0.000000 254 207 199
0.238136 -0.081739 -0.044084 254 207 199
0.238136 -0.081739 0.044084 254 207 199
0.222964 -0.081668 -0.007840 254 207 199
0.222964 -0.081668 0.007840 254 207 199
0.248905 -0.081537 -0.055736 254 207 199
0.248905 -0.081537 0.055736 254 207 199
0.268889 -0.081533 -0.068516 254 207 199
0.268889 -0.081533 0.068516 254 207 199
0.330198 -0.081403 -0.068516 254 207 199
0.330198 -0.081403 0.068516 254 207 199
0.233469 -0.081247 -0.037500 254 207 199
0.233469 -0.081247 0.037500 254 207 199
0.229543 -0.081075 -0.030505 254 207 199
0.229543 -0.081075 0.030505 254 207 199
0.226387 -0.081052 -0.023176 254 207 199
0.226387 -0.081052 0.023176 254 207 199
0.222008 -0.081011 0.000000 254 207 199
0.223998 -0.081004 -0.015593 254 207 199
0.223998 -0.081004 0.015593 254 207 199
0.337175 -0.080904 -0.064952 254 207 199
0.337175 -0.080904 0.064952 254 207 199
0.222337 -0.080765 -0.007840 254 207 199
0.222337 -0.080765 0.007840 254 207 199
0.276144 -0.080490 -0.071329 254 207 199
0.276144 -0.080490 0.071329 254 207 199
0.343742 -0.080435 -0.060676 254 207 199
0.343742 -0.080435 0.060676 254 207 199
0.242876 -0.080347 -0.050185 254 207 199
0.242876 -0.080347 0.050185 254 207 199
0.254867 -0.080240 -0.060676 254 207 199
0.254867 -0.080240 0.060676 254 207 199
0.221336 -0.080177 0.000000 254 207 199
0.223320 -0.080029 -0.015593 254 207 199
0.223320 -0.080029 0.015593 254 207 199
0.349828 -0.079999 -0.055736 254 207 199
0.349828 -0.079999 0.055736 254 207 199
0.221647 -0.079908 -0.007840 254 207 199
0.221647 -0.079908 0.007840 254 207 199
0.225707 -0.079906 -0.023176 254 207 199
0.225707 -0.079906 0.023176 254 207 199
0.237475 -0.079752 -0.044084 254 207 199
0.237475 -0.079752 0.044084 254 207 199
0.228856 -0.079704 -0.030505 254 207 199
0.228856 -0.079704 0.030505 254 207 199
0.355365 -0.079603 -0.050185 254 207 199
0.355365 -0.079603 0.050185 254 207 199
0.232785 -0.079595 -0.037500 254 207 199
0.232785 -0.079595 0.037500 254 207 199
0.283649 -0.079411 -0.073361 254 207 199
0.283649 -0.079411 0.073361 254 207 199
0.220607 -0.079393 0.000000 254 207 199
0.360292 -0.079251 -0.044084 254 207 199
0.360292 -0.079251 0.044084 254 207 199
0.222575 -0.079104 -0.015593 254 207 199
0.222575 -0.079104 0.015593 254 207 199
0.220897 -0.079103 -0.007840 254 207 199
0.220897 -0.079103 0.007840 254 207 199
0.364557 -0.078946 -0.037500 254 207 199
0.364557 -0.078946 0.037500 254 207 199
0.261300 -0.078840 -0.064952 254 207 199
0.261300 -0.078840 0.064952 254 207 199
0.224947 -0.078811 -0.023176 254 207 199
0.224947 -0.078811 0.023176 254 207 199
0.248202 -0.078783 -0.055736 254 207 199
0.248202 -0.078783 0.055736 254 207 199
0.368112 -0.078692 -0.030505 254 207 199
0.368112 -0.078692 0.030505 254 207 199
0.219823 -0.078664 0.000000 254 207 199
0.370918 -0.078491 -0.023176 254 207 199
0.370918 -0.078491 0.023176 254 207 199
0.228074 -0.078385 -0.030505 254 207 199
0.228074 -0.078385 0.030505 254 207 199
0.220092 -0.078353 -0.007840 254 207 199
0.220092 -0.078353 0.007840 254 207 199
0.372945 -0.078346 -0.015593 254 207 199
0.372945 -0.078346 0.015593 254 207 199
0.291324 -0.078307 -0.074589 254 207 199
0.291324 -0.078307 0.074589 254 207 199
0.374170 -0.078258 -0.007840 254 207 199
0.374170 -0.078258 0.007840 254 207 199
0.221766 -0.078235 -0.015593 254 207 199
0.221766 -0.078235 0.015593 254 207 199
0.374580 -0.078229 0.000000 254 207 199
0.242104 -0.078026 -0.050185 254 207 199
0.242104 -0.078026 0.050185 254 207 199
0.231984 -0.077996 -0.037500 254 207 199
0.231984 -0.077996 0.037500 254 207 199
0.218989 -0.077992 0.000000 254 207 199
0.236674 -0.077818 -0.044084 254 207 199
0.236674 -0.077818 0.044084 254 207 199
0.224110 -0.077773 -0.023176 254 207 199
0.224110 -0.077773 0.023176 254 207 199
0.219235 -0.077663 -0.007840 254 207 199
0.219235 -0.077663 0.007840 254 207 199
0.220896 -0.077425 -0.015593 254 207 199
0.220896 -0.077425 0.015593 254 207 199
0.218110 -0.077381 0.000000 254 207 199
0.268135 -0.077353 -0.068516 254 207 199
0.268135 -0.077353 0.068516 254 207 199
0.299084 -0.077192 -0.075000 254 207 199
0.299084 -0.077192 0.075000 254 207 199
0.227199 -0.077125 -0.030505 254 207 199
0.227199 -0.077125 0.030505 254 207 199
0.254056 -0.077064 -0.060676 254 207 199
0.254056 -0.077064 0.060676 254 207 199
0.218332 -0.077036 -0.007840 254 207 199
0.218332 -0.077036 0.007840 254 207 199
0.217189 -0.076835 0.000000 254 207 199
0.223202 -0.076798 -0.023176 254 207 199
0.223202 -0.076798 0.023176 254 207 199
0.219971 -0.076680 -0.015593 254 207 199
0.219971 -0.076680 0.015593 254 207 199
0.217386 -0.076474 -0.007840 254 207 199
0.217386 -0.076474 0.007840 254 207 199
0.231072 -0.076458 -0.037500 254 207 199
0.231072 -0.076458 0.037500 254 207 199
0.216231 -0.076356 0.000000 254 207 199
0.247305 -0.076086 -0.055736 254 207 199
0.247305 -0.076086 0.055736 254 207 199
0.306844 -0.076076 -0.074589 254 207 199
0.306844 -0.076076 0.074589 254 207 199
0.218996 -0.076002 -0.015593 254 207 199
0.218996 -0.076002 0.015593 254 207 199
0.216402 -0.075982 -0.007840 254 207 199
0.216402 -0.075982 0.007840 254 207 199
0.235737 -0.075947 -0.044084 254 207 199
0.235737 -0.075947 0.044084 254 207 199
0.215242 -0.075946 0.000000 254 207 199
0.226237 -0.075931 -0.030505 254 207 199
0.226237 -0.075931 0.030505 254 207 199
0.222227 -0.075890 -0.023176 254 207 199
0.222227 -0.075890 0.023176 254 207 199
0.275297 -0.075796 -0.071329 254 207 199
0.275297 -0.075796 0.071329 254 207 199
0.241168 -0.075766 -0.050185 254 207 199
0.241168 -0.075766 0.050185 254 207 199
0.214226 -0.075608 0.000000 254 207 199
0.215386 -0.075561 -0.007840 254 207 199
0.215386 -0.075561 0.007840 254 207 199
0.217974 -0.075396 -0.015593 254 207 199
0.217974 -0.075396 0.015593 254 207 199
0.213188 -0.075343 0.000000 254 207 199
0.214342 -0.075213 -0.007840 254 207 199
0.214342 -0.075213 0.007840 254 207 199
0.260373 -0.075209 -0.064952 254 207 199
0.260373 -0.075209 0.064952 254 207 199
0.212135 -0.075153 0.000000 254 207 199
0.221189 -0.075053 -0.023176 254 207 199
0.221189 -0.075053 0.023176 254 207 199
0.211070 -0.075038 0.000000 254 207 199
0.007500 -0.075000 0.000000 254 254 254
0.210000 -0.075000 0.000000 254 207 199
0.007500 -0.075000 0.000000 254 207 199
0.210000 -0.075000 0.000000 254 254 254
0.230052 -0.074989 -0.037500 254 207 199
0.230052 -0.074989 0.037500 254 207 199
0.314519 -0.074973 -0.073361 254 207 199
0.314519 -0.074973 0.073361 254 207 199
0.213276 -0.074941 -0.007840 254 207 199
0.213276 -0.074941 0.007840 254 207 199
0.006327 -0.074908 0.000000 254 207 199
0.216912 -0.074865 -0.015593 254 207 199
0.216912 -0.074865 0.015593 254 207 199
0.225192 -0.074808 -0.030505 254 207 199
0.225192 -0.074808 0.030505 254 207 199
0.007500 -0.074790 -0.005605 254 207 199
0.210000 -0.074790 -0.005605 254 207 199
0.007500 -0.074790 0.005605 254 207 199
0.210000 -0.074790 0.005605 254 207 199
0.212193 -0.074746 -0.007840 254 207 199
0.212193 -0.074746 0.007840 254 207 199
0.005182 -0.074633 0.000000 254 207 199
0.211099 -0.074628 -0.007840 254 207 199
0.211099 -0.074628 0.007840 254 207 199
0.007500 -0.074589 -0.007840 254 207 199
0.210000 -0.074589 -0.007840 254 207 199
0.007500 -0.074589 0.007840 254 207 199
0.210000 -0.074589 0.007840 254 207 199
0.006327 -0.074497 -0.007830 254 207 199
0.006327 -0.074497 0.007830 254 207 199
0.215815 -0.074410 -0.015593 254 207 199
0.215815 -0.074410 0.015593 254 207 199
0.220094 -0.074293 -0.023176 254 207 199
0.220094 -0.074293 0.023176 254 207 199
0.005182 -0.074224 -0.007801 254 207 199
0.005182 -0.074224 0.007801 254 207 199
0.282706 -0.074184 -0.073361 254 207 199
0.282706 -0.074184 0.073361 254 207 199
0.004095 -0.074183 0.000000 254 207 199
0.234669 -0.074146 -0.044084 254 207 199
0.234669 -0.074146 0.044084 254 207 199
0.214688 -0.074035 -0.015593 254 207 199
0.214688 -0.074035 0.015593 254 207 199
0.253021 -0.073954 -0.060676 254 207 199
0.253021 -0.073954 0.060676 254 207 199
0.322024 -0.073893 -0.071329 254 207 199
0.322024 -0.073893 0.071329 254 207 199
0.004095 -0.073776 -0.007754 254 207 199
0.004095 -0.073776 0.007754 254 207 199
0.224069 -0.073763 -0.030505 254 207 199
0.224069 -0.073763 0.030505 254 207 199
0.213537 -0.073741 -0.015593 254 207 199
0.213537 -0.073741 0.015593 254 207 199
0.218948 -0.073613 -0.023176 254 207 199
0.218948 -0.073613 0.023176 254 207 199
0.228930 -0.073597 -0.037500 254 207 199
0.228930 -0.073597 0.037500 254 207 199
0.240073 -0.073579 -0.050185 254 207 199
0.240073 -0.073579 0.050185 254 207 199
0.003092 -0.073568 0.000000 254 207 199
0.212368 -0.073530 -0.015593 254 207 199
0.212368 -0.073530 0.015593 254 207 199
0.246217 -0.073460 -0.055736 254 207 199
0.246217 -0.073460 0.055736 254 207 199
0.211187 -0.073403 -0.015593 254 207 199
0.211187 -0.073403 0.015593 254 207 199
0.007500 -0.073361 -0.015593 254 207 199
0.210000 -0.073361 -0.015593 254 207 199
0.007500 -0.073361 0.015593 254 207 199
0.210000 -0.073361 0.015593 254 207 199
0.006327 -0.073271 -0.015574 254 207 199
0.006327 -0.073271 0.015574 254 207 199
0.267085 -0.073238 -0.068516 254 207 199
0.267085 -0.073238 0.068516 254 207 199
0.003092 -0.073165 -0.007690 254 207 199
0.003092 -0.073165 0.007690 254 207 199
0.007500 -0.073120 -0.016689 254 207 199
0.210000 -0.073120 -0.016689 254 207 199
0.007500 -0.073120 0.016689 254 207 199
0.210000 -0.073120 0.016689 254 207 199
0.217756 -0.073016 -0.023176 254 207 199
0.217756 -0.073016 0.023176 254 207 199
0.005182 -0.073002 -0.015517 254 207 199
0.005182 -0.073002 0.015517 254 207 199
0.329279 -0.072850 -0.068516 254 207 199
0.329279 -0.072850 0.068516 254 207 199
0.002197 -0.072803 0.000000 254 207 199
0.222875 -0.072801 -0.030505 254 207 199
0.222875 -0.072801 0.030505 254 207 199
0.004095 -0.072561 -0.015423 254 207 199
0.004095 -0.072561 0.015423 254 207 199
0.290283 -0.072536 -0.074589 254 207 199
0.290283 -0.072536 0.074589 254 207 199
0.216525 -0.072506 -0.023176 254 207 199
0.216525 -0.072506 0.023176 254 207 199
0.233475 -0.072427 -0.044084 254 207 199
0.233475 -0.072427 0.044084 254 207 199
0.002197 -0.072404 -0.007610 254 207 199
0.002197 -0.072404 0.007610 254 207 199
0.227712 -0.072288 -0.037500 254 207 199
0.227712 -0.072288 0.037500 254 207 199
0.215260 -0.072086 -0.023176 254 207 199
0.215260 -0.072086 0.023176 254 207 199
0.003092 -0.071960 -0.015296 254 207 199
0.003092 -0.071960 0.015296 254 207 199
0.221615 -0.071926 -0.030505 254 207 199
0.221615 -0.071926 0.030505 254 207 199
0.001432 -0.071908 0.000000 254 207 199
0.336202 -0.071855 -0.064952 254 207 199
0.336202 -0.071855 0.064952 254 207 199
0.213969 -0.071756 -0.023176 254 207 199
0.213969 -0.071756 0.023176 254 207 199
0.259190 -0.071653 -0.064952 254 207 199
0.259190 -0.071653 0.064952 254 207 199
0.212657 -0.071519 -0.023176 254 207 199
0.212657 -0.071519 0.023176 254 207 199
0.001432 -0.071514 -0.007516 254 207 199
0.001432 -0.071514 0.007516 254 207 199
0.238825 -0.071475 -0.050185 254 207 199
0.238825 -0.071475 0.050185 254 207 199
0.211332 -0.071377 -0.023176 254 207 199
0.211332 -0.071377 0.023176 254 207 199
0.007500 -0.071329 -0.023176 254 207 199
0.210000 -0.071329 -0.023176 254 207 199
0.007500 -0.071329 0.023176 254 207 199
0.210000 -0.071329 0.023176 254 207 199
0.006327 -0.071241 -0.023148 254 207 199
0.006327 -0.071241 0.023148 254 207 199
0.002197 -0.071212 -0.015137 254 207 199
0.002197 -0.071212 0.015137 254 207 199
0.274117 -0.071174 -0.071329 254 207 199
0.274117 -0.071174 0.071329 254 207 199
0.220296 -0.071144 -0.030505 254 207 199
0.220296 -0.071144 0.030505 254 207 199
0.226403 -0.071070 -0.037500 254 207 199
0.226403 -0.071070 0.037500 254 207 199
0.005182 -0.070980 -0.023063 254 207 199
0.005182 -0.070980 0.023063 254 207 199
0.251767 -0.070926 -0.060676 254 207 199
0.251767 -0.070926 0.060676 254 207 199
0.244945 -0.070919 -0.055736 254 207 199
0.244945 -0.070919 0.055736 254 207 199
0.342719 -0.070918 -0.060676 254 207 199
0.342719 -0.070918 0.060676 254 207 199
0.000817 -0.070905 0.000000 254 207 199
0.297943 -0.070869 -0.075000 254 207 199
0.297943 -0.070869 0.075000 254 207 199
0.232161 -0.070797 -0.044084 254 207 199
0.232161 -0.070797 0.044084 254 207 199
0.004095 -0.070552 -0.022924 254 207 199
0.004095 -0.070552 0.022924 254 207 199
0.000817 -0.070517 -0.007412 254 207 199
0.000817 -0.070517 0.007412 254 207 199
0.218925 -0.070457 -0.030505 254 207 199
0.218925 -0.070457 0.030505 254 207 199
0.001432 -0.070337 -0.014951 254 207 199
0.001432 -0.070337 0.014951 254 207 199
0.348758 -0.070050 -0.055736 254 207 199
0.348758 -0.070050 0.055736 254 207 199
0.003092 -0.069967 -0.022734 254 207 199
0.003092 -0.069967 0.022734 254 207 199
0.225011 -0.069948 -0.037500 254 207 199
0.225011 -0.069948 0.037500 254 207 199
0.217508 -0.069870 -0.030505 254 207 199
0.217508 -0.069870 0.030505 254 207 199
0.000367 -0.069818 0.000000 254 207 199
0.007500 -0.069816 -0.027401 254 207 199
0.210000 -0.069816 -0.027401 254 207 199
0.007500 -0.069816 0.027401 254 207 199
0.210000 -0.069816 0.027401 254 207 199
0.237430 -0.069466 -0.050185 254 207 199
0.237430 -0.069466 0.050185 254 207 199
0.000367 -0.069435 -0.007298 254 207 199
0.000367 -0.069435 0.007298 254 207 199
0.216053 -0.069386 -0.030505 254 207 199
0.216053 -0.069386 0.030505 254 207 199
0.000817 -0.069355 -0.014742 254 207 199
0.000817 -0.069355 0.014742 254 207 199
0.230735 -0.069265 -0.044084 254 207 199
0.230735 -0.069265 0.044084 254 207 199
0.354252 -0.069260 -0.050185 254 207 199
0.354252 -0.069260 0.050185 254 207 199
0.002197 -0.069240 -0.022497 254 207 199
0.002197 -0.069240 0.022497 254 207 199
0.265744 -0.069209 -0.068516 254 207 199
0.265744 -0.069209 0.068516 254 207 199
0.305604 -0.069203 -0.074589 254 207 199
0.305604 -0.069203 0.074589 254 207 199
0.281393 -0.069037 -0.073361 254 207 199
0.281393 -0.069037 0.073361 254 207 199
0.214567 -0.069007 -0.030505 254 207 199
0.214567 -0.069007 0.030505 254 207 199
0.223542 -0.068928 -0.037500 254 207 199
0.223542 -0.068928 0.037500 254 207 199
0.213057 -0.068735 -0.030505 254 207 199
0.213057 -0.068735 0.030505 254 207 199
0.000092 -0.068673 0.000000 254 207 199
0.211533 -0.068571 -0.030505 254 207 199
0.211533 -0.068571 0.030505 254 207 199
0.359143 -0.068557 -0.044084 254 207 199
0.359143 -0.068557 0.044084 254 207 199
0.007500 -0.068516 -0.030505 254 207 199
0.210000 -0.068516 -0.030505 254 207 199
0.007500 -0.068516 0.030505 254 207 199
0.210000 -0.068516 0.030505 254 207 199
0.243495 -0.068474 -0.055736 254 207 199
0.243495 -0.068474 0.055736 254 207 199
0.006327 -0.068432 -0.030468 254 207 199
0.006327 -0.068432 0.030468 254 207 199
0.001432 -0.068389 -0.022221 254 207 199
0.001432 -0.068389 0.022221 254 207 199
0.000092 -0.068297 -0.007178 254 207 199
0.000092 -0.068297 0.007178 254 207 199
0.000367 -0.068292 -0.014516 254 207 199
0.000367 -0.068292 0.014516 254 207 199
0.257756 -0.068191 -0.064952 254 207 199
0.257756 -0.068191 0.064952 254 207 199
0.005182 -0.068181 -0.030356 254 207 199
0.005182 -0.068181 0.030356 254 207 199
0.222004 -0.068016 -0.037500 254 207 199
0.222004 -0.068016 0.037500 254 207 199
0.250300 -0.067995 -0.060676 254 207 199
0.250300 -0.067995 0.060676 254 207 199
0.363375 -0.067948 -0.037500 254 207 199
0.363375 -0.067948 0.037500 254 207 199
0.229203 -0.067839 -0.044084 254 207 199
0.229203 -0.067839 0.044084 254 207 199
0.004095 -0.067769 -0.030173 254 207 199
0.004095 -0.067769 0.030173 254 207 199
0.235895 -0.067562 -0.050185 254 207 199
0.235895 -0.067562 0.050185 254 207 199
0.313180 -0.067555 -0.073361 254 207 199
0.313180 -0.067555 0.073361 254 207 199
-0.000000 -0.067500 -0.000000 254 207 199
-0.000000 -0.067500 0.000000 254 254 254
0.366902 -0.067441 -0.030505 254 207 199
0.366902 -0.067441 0.030505 254 207 199
0.000817 -0.067435 -0.021911 254 207 199
0.000817 -0.067435 0.021911 254 207 199
0.220405 -0.067215 -0.037500 254 207 199
0.220405 -0.067215 0.037500 254 207 199
0.003092 -0.067207 -0.029923 254 207 199
0.003092 -0.067207 0.029923 254 207 199
0.000092 -0.067173 -0.014278 254 207 199
0.000092 -0.067173 0.014278 254 207 199
-0.000000 -0.067130 -0.007056 254 207 199
-0.000000 -0.067130 0.007056 254 207 199
0.369687 -0.067040 -0.023176 254 207 199
0.369687 -0.067040 0.023176 254 207 199
0.288832 -0.066853 -0.074589 254 207 199
0.288832 -0.066853 0.074589 254 207 199
0.371698 -0.066751 -0.015593 254 207 199
0.371698 -0.066751 0.015593 254 207 199
0.272610 -0.066647 -0.071329 254 207 199
0.272610 -0.066647 0.071329 254 207 199
0.372914 -0.066577 -0.007840 254 207 199
0.372914 -0.066577 0.007840 254 207 199
0.218753 -0.066531 -0.037500 254 207 199
0.218753 -0.066531 0.037500 254 207 199
0.227573 -0.066525 -0.044084 254 207 199
0.227573 -0.066525 0.044084 254 207 199
0.373321 -0.066518 0.000000 254 207 199
0.002197 -0.066509 -0.029612 254 207 199
0.002197 -0.066509 0.029612 254 207 199
0.000367 -0.066401 -0.021575 254 207 199
0.000367 -0.066401 0.021575 254 207 199
0.241874 -0.066140 -0.055736 254 207 199
0.241874 -0.066140 0.055736 254 207 199
-0.000000 -0.066025 -0.014034 254 207 199
-0.000000 -0.066025 0.014034 254 207 199
0.217057 -0.065967 -0.037500 254 207 199
0.217057 -0.065967 0.037500 254 207 199
0.320590 -0.065943 -0.071329 254 207 199
0.320590 -0.065943 0.071329 254 207 199
0.234228 -0.065772 -0.050185 254 207 199
0.234228 -0.065772 0.050185 254 207 199
0.001432 -0.065692 -0.029248 254 207 199
0.001432 -0.065692 0.029248 254 207 199
0.215324 -0.065524 -0.037500 254 207 199
0.215324 -0.065524 0.037500 254 207 199
0.225854 -0.065331 -0.044084 254 207 199
0.225854 -0.065331 0.044084 254 207 199
0.000092 -0.065312 -0.021221 254 207 199
0.000092 -0.065312 0.021221 254 207 199
0.264118 -0.065285 -0.068516 254 207 199
0.264118 -0.065285 0.068516 254 207 199
0.213565 -0.065207 -0.037500 254 207 199
0.213565 -0.065207 0.037500 254 207 199
0.248627 -0.065176 -0.060676 254 207 199
0.248627 -0.065176 0.060676 254 207 199
0.211787 -0.065016 -0.037500 254 207 199
0.211787 -0.065016 0.037500 254 207 199
0.007500 -0.064952 -0.037500 254 207 199
0.210000 -0.064952 -0.037500 254 207 199
0.007500 -0.064952 0.037500 254 207 199
0.210000 -0.064952 0.037500 254 207 199
0.006327 -0.064872 -0.037454 254 207 199
0.006327 -0.064872 0.037454 254 207 199
0.256078 -0.064839 -0.064952 254 207 199
0.256078 -0.064839 0.064952 254 207 199
0.000817 -0.064775 -0.028840 254 207 199
0.000817 -0.064775 0.028840 254 207 199
0.296354 -0.064644 -0.075000 254 207 199
0.296354 -0.064644 0.075000 254 207 199
0.005182 -0.064634 -0.037316 254 207 199
0.005182 -0.064634 0.037316 254 207 199
0.327751 -0.064385 -0.068516 254 207 199
0.327751 -0.064385 0.068516 254 207 199
0.224053 -0.064263 -0.044084 254 207 199
0.224053 -0.064263 0.044084 254 207 199
0.004095 -0.064244 -0.037091 254 207 199
0.004095 -0.064244 0.037091 254 207 199
-0.000000 -0.064196 -0.020859 254 207 199
-0.000000 -0.064196 0.020859 254 207 199
0.232438 -0.064105 -0.050185 254 207 199
0.232438 -0.064105 0.050185 254 207 199
0.279715 -0.063998 -0.073361 254 207 199
0.279715 -0.063998 0.073361 254 207 199
0.240090 -0.063927 -0.055736 254 207 199
0.240090 -0.063927 0.055736 254 207 199
0.000367 -0.063782 -0.028397 254 207 199
0.000367 -0.063782 0.028397 254 207 199
0.003092 -0.063711 -0.036784 254 207 199
0.003092 -0.063711 0.036784 254 207 199
0.222182 -0.063326 -0.044084 254 207 199
0.222182 -0.063326 0.044084 254 207 199
0.002197 -0.063050 -0.036402 254 207 199
0.002197 -0.063050 0.036402 254 207 199
